# .PCD v0.7 - Point Cloud Data file format
VERSION 0.7
FIELDS x y z intensity
SIZE 4 4 4 4
TYPE F F F F
COUNT 1 1 1 1
WIDTH 1417
HEIGHT 1
VIEWPOINT 0 0 0 1 0 0 0
POINTS 1417
DATA ascii
25.158655 39.363472 0.12284899 0
25.638847 39.208069 0.14072943 0
32.638271 39.375988 0.16325116 0
9.1407413 39.448952 0.01815033 0
11.945075 39.44342 0.079614878 0
12.739249 39.468132 0.093189955 0
13.224733 39.420856 0.033875227 0
13.779997 39.580532 0.029074669 0
15.091668 39.483929 0.034958124 0
17.571316 39.577499 0.052429914 0
18.158184 39.519115 0.056234121 0
18.746225 39.454193 0.059984684 0
21.23852 39.40929 0.12186027 0
21.952288 39.516323 0.12805772 0
24.037411 39.419579 0.12086368 0
25.867054 39.416134 0.12901211 0
26.583939 39.463001 0.13518524 0
27.309444 39.503922 0.14136815 0
33.264599 39.512295 0.1916213 0
34.638813 39.496704 0.18232369 0
-3.5861044 39.743507 0.022808313 0
-3.0211658 39.716408 0.026176691 0
-2.4581847 39.706036 0.029767275 0
-1.8962283 39.712326 0.03358674 0
-1.3343694 39.735287 0.03764081 0
-0.77168071 39.774975 0.04193759 0
10.630673 39.783512 0.0028207302 0
14.076351 39.792942 0.028514385 0
14.655579 39.772884 0.032627106 0
15.236145 39.74654 0.036689758 0
15.818035 39.713871 0.040702343 0
16.281614 39.754433 0.09634757 0
16.401209 39.674835 0.044663429 0
16.985649 39.629391 0.048573017 0
17.899334 39.755894 0.11825633 0
18.942352 39.617207 0.059615612 0
21.297729 39.605843 0.08579421 0
22.676386 39.619247 0.13427854 0
23.411066 39.717953 0.14052296 0
27.896927 39.724335 0.17556381 0
-0.20722902 39.831509 0.046484709 0
0.35992992 39.905079 0.051289797 0
0.93075693 39.995911 0.056363821 0
8.3184185 39.855526 0.042997837 0
11.201298 39.800358 0.0072214603 0
11.773413 39.811134 0.01157546 0
12.347004 39.815819 0.015882254 0
12.922039 39.814373 0.020141363 0
13.498495 39.806763 0.024352312 0
17.296574 39.851524 0.090876102 0
21.21736 39.912811 0.087546349 0
24.156578 39.812313 0.14679027 0
24.925514 39.907684 0.14310014 0
25.681183 39.987484 0.15939808 0
32.358238 39.893192 0.11119008 0
33.824574 39.856831 0.17701387 0
1.506235 40.104321 0.061716318 0
11.560572 40.161316 0.085662127 0
12.223173 40.038322 0.074038744 0
15.821556 40.1236 0.046991825 0
22.108646 40.083199 0.096565485 0
26.460825 40.068008 0.16573834 0
27.252407 40.143627 0.1721034 0
2.0873771 40.230671 0.067361116 0
2.6752295 40.375412 0.073308706 0
13.49521 40.262333 0.016081333 0
24.564581 40.384434 0.18123221 0
26.806946 40.200413 0.12445831 0
28.056227 40.214195 0.1784935 0
28.872597 40.279556 0.18490863 0
29.701828 40.339531 0.19134951 0
30.544252 40.39394 0.1978159 0
35.057877 40.348118 0.19124603 0
11.168104 40.475239 0.0019397736 0
14.141035 40.539272 0.022354126 0
17.786386 40.447876 0.10343957 0
19.897066 40.580379 0.071275949 0
22.945765 40.57069 0.10763574 0
25.866573 40.411297 0.14565372 0
8.8229771 40.690819 0.029084444 0
9.1521883 40.67387 0.064344406 0
16.579386 40.782646 0.059440374 0
22.543928 40.662876 0.16759682 0
2.0066833 40.841442 0.011520386 0
6.8506918 40.823811 0.038150787 0
7.9440746 40.948635 0.00046992302 0
11.163277 40.894062 0.091801167 0
26.824633 40.913895 0.15847802 0
11.857565 41.17775 0.013727903 0
13.46946 41.145454 0.042039394 0
17.492439 41.110504 0.12082338 0
23.810421 41.068832 0.11902022 0
26.365658 41.051132 0.13976717 0
9.2092667 41.345596 0.066880703 0
17.366825 41.462212 0.072329044 0
24.704042 41.578159 0.13073492 0
27.813076 41.42086 0.17159843 0
8.5632191 41.774456 0.013531923 0
10.752641 41.642292 0.098035574 0
16.986423 41.62286 0.16763639 0
21.233452 41.752033 0.10561371 0
1.3920637 41.802185 0.0037634373 0
8.4826221 41.989418 0.040449381 0
12.574358 41.902756 0.025934935 0
18.054853 41.907681 0.14432621 0
20.31422 41.817913 0.089687824 0
28.883514 41.927116 0.18733001 0
5.4809842 42.001488 0.035875797 0
13.06588 42.063225 0.057711363 0
13.346389 42.168262 0.031708002 0
18.185678 42.163544 0.085683823 0
12.115925 42.211205 0.098153591 0
21.822393 42.304024 0.13648558 0
2.6551807 42.515465 0.035937548 0
10.328082 42.406662 0.10436964 0
18.798313 42.562805 0.14709854 0
26.947699 42.528053 0.18665457 0
27.378967 42.499271 0.14945626 0
28.463545 42.47654 0.19113588 0
29.885492 42.44738 0.19876075 0
9.208313 42.625042 0.027047396 0
10.022491 42.657345 0.00085353851 0
13.070462 42.683231 0.13326836 0
13.320155 42.651619 0.038587332 0
20.078537 42.707272 0.09155798 0
29.691456 42.713223 0.17780209 0
10.173735 42.94952 0.09262538 0
13.132091 42.816616 0.055841684 0
15.254866 42.953568 0.051717043 0
19.037903 42.887985 0.099533796 0
6.4662237 43.075748 0.060858011 0
9.8889875 43.187885 0.11080718 0
27.983408 43.029388 0.19253826 0
1.6331826 43.296505 0.0049521923 0
8.117918 43.348743 0.052275896 0
28.238949 43.289341 0.17478609 0
9.880826 43.501705 0.041041613 0
14.09677 43.425831 0.051712036 0
17.966717 43.444729 0.13517499 0
27.493546 43.580597 0.19384217 0
19.925613 43.636986 0.11391068 0
21.246616 43.737984 0.12509108 0
3.7949984 43.97406 0.0061175823 0
9.4347029 43.986694 0.11735296 0
0.69096684 44.160408 0.025045633 0
4.4084721 44.177864 0.013319731 0
9.2057476 44.045223 0.10289812 0
20.210474 44.122589 0.17538404 0
26.99386 44.130058 0.19504571 0
-3.6322548 44.278725 0.013901472 0
3.3608391 44.32766 0.062395096 0
5.0270262 44.375423 0.020502329 0
13.180698 44.245487 0.048710823 0
14.906174 44.22699 0.065339565 0
18.230671 44.293636 0.17326117 0
21.85511 44.278511 0.12337589 0
5.6506386 44.566639 0.027663708 0
10.582333 44.405861 0.055540323 0
20.851116 44.412121 0.12884808 0
6.2792888 44.751419 0.034803152 0
11.22108 44.68153 0.12046742 0
11.998552 44.626453 0.12497425 0
12.764898 44.605598 0.070572376 0
26.484259 44.677624 0.19614649 0
4.3039012 44.951462 0.063781977 0
6.9129581 44.929653 0.041918993 0
7.5824499 44.976479 0.014758348 0
8.9645395 44.80389 0.12401175 0
3.0482411 45.193737 0.057489872 0
3.677701 45.0807 0.060740471 0
7.5516191 45.101246 0.049010515 0
12.881409 45.054001 0.08462882 0
15.750504 45.056847 0.079502821 0
20.275688 45.04427 0.11382556 0
28.010929 45.0424 0.17710328 0
-4.597784 45.259094 0.0029857159 0
-3.9640017 45.34494 0.0085513592 0
1.7812847 45.37072 0.050365686 0
2.4159555 45.290443 0.054030895 0
8.1952486 45.266106 0.056076288 0
11.314531 45.33902 0.07057333 0
21.816914 45.215111 0.14438295 0
25.964651 45.22319 0.19714308 0
-3.328105 45.414341 0.013943434 0
-2.6905384 45.46719 0.019157648 0
-2.0517511 45.503429 0.024190187 0
-1.4121938 45.523014 0.02903676 0
-0.77231926 45.525906 0.033694267 0
-0.13258111 45.5121 0.038158894 0
0.50656676 45.481613 0.042427063 0
1.1446723 45.434467 0.046497345 0
3.153646 45.438286 0.0073256493 0
5.2288561 45.556576 0.072882175 0
6.0378103 45.58857 0.086200476 0
8.8438196 45.424118 0.06311512 0
9.4972992 45.57518 0.070125818 0
10.928593 45.440178 0.031194687 0
19.586224 45.525276 0.015559196 0
4.568944 45.634415 0.011128187 0
8.4777622 45.640293 0.13078856 0
10.155663 45.719193 0.077106714 0
16.514025 45.671619 0.084821701 0
10.818873 45.856041 0.084056377 0
11.486897 45.985619 0.090974092 0
16.632092 45.917301 0.094236851 0
21.256462 45.889549 0.1461606 0
12.159697 46.107815 0.097857952 0
22.825741 46.047825 0.1605556 0
-3.1865873 46.35495 0.041728258 0
4.1313701 46.296638 0.09116745 0
5.6621618 46.257313 0.0049705505 0
12.079251 46.302822 0.086171389 0
12.837233 46.222523 0.10470653 0
13.519467 46.329609 0.11151862 0
24.895058 46.307728 0.19881368 0
5.1815109 46.405888 0.02308321 0
7.973588 46.496784 0.13768888 0
12.363299 46.542042 0.1185081 0
12.995664 46.518917 0.067289114 0
13.460125 46.452831 0.18027472 0
14.206351 46.428989 0.11829209 0
14.89784 46.520527 0.12502623 0
15.593886 46.604115 0.13171887 0
16.294441 46.67963 0.13836837 0
16.999441 46.746944 0.14497352 0
-0.095538378 46.80386 0.048897505 0
17.553482 46.810417 0.10958052 0
17.708839 46.805962 0.15153217 0
18.169678 46.88097 0.17151308 0
18.422573 46.856529 0.15804315 0
19.140572 46.89854 0.16450381 0
19.862782 46.931866 0.17091298 0
20.589125 46.956383 0.17726874 0
21.319534 46.971962 0.18356919 0
22.053932 46.978481 0.18981194 0
22.792236 46.975796 0.19599628 0
23.880575 46.912296 0.1774106 0
24.344893 46.846436 0.19948411 0
1.0375947 47.035892 0.039971352 0
2.3587494 47.079453 0.017438412 0
6.1607585 47.1036 8.8214874e-05 0
5.8144679 47.200031 0.035408497 0
7.451189 47.37431 0.14471793 0
11.869196 47.328213 0.15499234 0
12.878469 47.299019 0.10236669 0
3.8644485 47.422195 0.0088400841 0
-10.364428 47.757339 0.0092864037 0
18.517448 47.738464 0.12557673 0
20.491032 47.625053 0.13839674 0
-6.636106 47.86475 0.006411314 0
-1.980408 48.05463 0.0035555363 0
6.4689932 48.018177 0.04812479 0
6.9737291 48.103359 0.037476778 0
9.2692566 48.015446 0.14830589 0
-3.4019704 48.253014 0.001175642 0
-1.3353393 48.284164 0.010702372 0
6.9096818 48.273861 0.15188217 0
13.714318 48.329506 0.11919594 0
21.262503 48.228981 0.16903424 0
-0.68502116 48.506809 0.017818213 0
3.3086414 48.433681 0.0031979084 0
4.4860435 48.457901 0.023478985 0
4.9759378 48.444504 0.12258196 0
5.070838 48.492107 0.019882917 0
5.5571346 48.411636 0.11467671 0
11.926708 48.592434 0.10325384 0
12.665776 48.467976 0.1152904 0
13.609847 48.599762 0.18358493 0
-2.6966863 48.626461 0.072188139 0
-0.029489994 48.722469 0.024902582 0
11.963324 48.605839 0.065746546 0
17.948437 48.755863 0.12243938 0
19.527033 48.703915 0.14227152 0
0.63122416 48.931038 0.031953812 0
1.5040312 48.822979 0.028105259 0
7.1463561 48.861759 0.061256409 0
1.2970774 49.132416 0.03897047 0
6.348124 49.196503 0.15918732 0
12.78831 49.018566 0.087684393 0
1.9680334 49.3265 0.045951605 0
14.58911 49.396336 0.13669848 0
-1.7793446 49.494919 0.00036644936 0
2.6440463 49.51318 0.052895308 0
5.1350274 49.535938 0.038733482 0
-0.98433495 49.78894 0.075825691 0
3.3250763 49.692348 0.059800625 0
4.9300141 49.764091 0.11667466 0
7.8479328 49.73233 0.074827671 0
4.0110736 49.863907 0.066665649 0
4.7019939 50.027733 0.073489666 0
5.3977828 50.183731 0.080270529 0
6.0983882 50.331776 0.087006807 0
6.8037567 50.471775 0.093697071 0
5.8133969 50.659416 0.054648161 0
7.513833 50.603588 0.10033965 0
8.2285509 50.727127 0.10693336 0
4.4175205 50.938744 0.036160946 0
8.9478531 50.842262 0.1134758 0
9.6716719 50.948875 0.11996603 0
11.132588 51.136101 0.13278198 0
0.86647695 -7.9046683 0.27779946 0
1.1190059 -7.9132853 0.23720311 0
1.2978704 -7.9106007 0.24401104 0
1.4963756 -7.9048615 0.24110156 0
1.6918142 -7.9086618 0.22676168 0
1.9060589 -7.9318261 0.25104487 0
2.0635169 -7.9411936 0.23873985 0
2.2655704 -7.9294634 0.24251395 0
2.4997866 -7.9424667 0.23384625 0
2.7022092 -7.9246306 0.31575689 0
2.8848691 -7.9435825 0.22801554 0
3.0820422 -7.94415 0.22448826 0
3.2821538 -7.9447241 0.22059685 0
3.4862423 -7.9453077 0.21623421 0
3.6870127 -7.921382 0.22338113 0
3.8345666 -7.9462986 0.20804268 0
4.050684 -7.9318619 0.25950411 0
4.2492924 -7.9169431 0.34279704 0
4.5226402 -7.9115992 0.35176528 0
4.7205725 -7.911006 0.31778681 0
4.9130297 -7.9123883 0.36328167 0
5.123395 -7.9136128 0.36925507 0
5.3179145 -7.9106312 0.38056737 0
5.50214 -7.9084115 0.34447709 0
5.6845069 -7.9023747 0.33202919 0
5.8418245 -7.8952732 0.39634013 0
6.7665997 -7.8880358 0.20194125 0
7.4719257 -7.9149308 0.34587836 0
7.7117429 -7.9095478 0.24491179 0
7.9481945 -7.902822 0.3658433 0
8.2483501 -7.9081993 0.23164773 0
2.5181866 -4.2792025 0.29872316 0
2.6532648 -4.2811542 0.34799206 0
2.5568721 -3.6194899 0.30542022 0
2.6221395 -3.6894188 0.34608534 0
2.5054789 -3.5165875 0.38051167 0
2.6471634 -3.4990246 0.38660574 0
2.5054777 -3.3118401 0.22022372 0
0.060762882 -3.0747836 0.348768 0
2.5020244 -3.0620623 0.30109426 0
0.049313545 -2.9565287 0.34736344 0
2.5523231 -2.956702 0.27555311 0
2.6780348 -2.934386 0.31109113 0
2.9042249 -2.9147069 0.2901369 0
-0.45448959 -2.6677153 0.27034566 0
2.7341766 -2.6519709 0.34108254 0
2.914449 -2.7231877 0.28120092 0
3.4756246 -2.7050161 0.20322847 0
9.2813911 -2.6855931 0.25640869 0
-0.43454301 -2.5108538 0.32648531 0
-0.3886531 -2.431284 0.25552839 0
0.038075924 -2.4273934 0.31503808 0
2.7396307 -2.4276514 0.32168129 0
2.9241145 -2.5421157 0.27307695 0
6.8423305 -2.5923352 0.35032511 0
9.2814074 -2.5666797 0.24192774 0
-2.6781096 -2.2647846 0.29054284 0
-1.3173294 -2.3051763 0.29929313 0
-0.40230274 -2.3150187 0.36001587 0
-0.36614481 -2.2950568 0.28102514 0
0.040340781 -2.329061 0.28897828 0
2.5544114 -2.2253478 0.2381385 0
2.700506 -2.274179 0.26584166 0
2.8524797 -2.2552481 0.32689586 0
6.8429966 -2.3662815 0.22015572 0
9.2797995 -2.2901525 0.32297909 0
-2.4833982 -2.0970988 0.28577656 0
-1.3062663 -2.1388736 0.30792463 0
-0.32620782 -2.1037261 0.30267438 0
2.5054743 -2.085227 0.28687617 0
2.612215 -2.1115174 0.29558131 0
4.1524816 -2.0100272 0.24350108 0
4.3225431 -2.0856087 0.2973814 0
6.6525245 -2.0096381 0.36607549 0
6.8375192 -2.1259463 0.30523697 0
9.2797832 -2.0774539 0.30241385 0
-2.4418924 -1.8081838 0.31915504 0
-2.0969806 -1.8351951 0.26996166 0
-1.9002948 -1.8454621 0.29124367 0
-1.7109967 -1.8584516 0.32106453 0
-1.4748611 -1.8749356 0.3188926 0
-1.3414867 -1.9406712 0.30296493 0
-0.29382181 -1.8738638 0.33461288 0
0.061961889 -1.8147821 0.34715688 0
2.5034533 -1.8335793 0.34545964 0
2.9228287 -1.8505358 0.30746701 0
3.0968652 -1.8104742 0.32968992 0
3.2849591 -1.8213751 0.35489786 0
3.4936595 -1.8334475 0.31140345 0
3.6840219 -1.8487583 0.28989318 0
3.9247818 -1.8956834 0.33383512 0
4.1569748 -1.885221 0.3208006 0
4.3224344 -1.8911701 0.31726238 0
4.473474 -1.8399442 0.29352617 0
4.6467872 -1.8377753 0.36035699 0
4.8813181 -1.8179479 0.26105112 0
5.0375962 -1.8312064 0.21883553 0
5.4648838 -1.8461202 0.30763647 0
5.7839808 -1.8380005 0.31975576 0
6.038177 -1.8287119 0.30823523 0
6.6580181 -1.8563826 0.36400867 0
6.8292785 -1.915906 0.2723366 0
7.2393627 -1.8145468 0.35914624 0
9.2794437 -1.8735424 0.30544227 0
-1.6923406 -1.6075534 0.20942283 0
-1.5659394 -1.6630089 0.27518773 0
-0.84294558 -1.7569267 0.31017369 0
-0.71101928 -1.7637953 0.30285823 0
-0.45757586 -1.6362381 0.28736472 0
-0.26255074 -1.7325184 0.30753967 0
-0.13499565 -1.7840842 0.28515634 0
0.05103929 -1.7713691 0.32016098 0
2.5274065 -1.7603843 0.31956595 0
2.6199582 -1.767381 0.36398047 0
3.0159247 -1.6672649 0.28762698 0
3.4912326 -1.7338116 0.27867031 0
3.6629317 -1.7211066 0.31136623 0
4.1601171 -1.797544 0.31856713 0
4.283247 -1.7784959 0.24461831 0
4.5033722 -1.7814554 0.29888642 0
4.7204499 -1.7813134 0.26908526 0
4.9072342 -1.7728029 0.30142295 0
5.1116724 -1.767276 0.31445238 0
5.3274345 -1.7720525 0.38456196 0
5.5131249 -1.7069112 0.33011818 0
5.6942158 -1.7081165 0.29381448 0
5.9554543 -1.6941385 0.25353131 0
6.0441656 -1.784892 0.38060856 0
6.9257545 -1.7721668 0.34444967 0
7.0992126 -1.7743164 0.31782669 0
7.3389654 -1.7628248 0.2993333 0
7.5000215 -1.77187 0.3000783 0
7.6333642 -1.7615795 0.31040382 0
9.2788687 -1.6904042 0.33156121 0
-1.9192363 -1.4958866 0.28167462 0
-1.7356743 -1.5759304 0.28371614 0
-1.0306132 -1.4761337 0.32235074 0
-0.9139387 -1.5074863 0.33100876 0
-0.7187444 -1.5556743 0.25062907 0
-0.54963851 -1.5893309 0.32484654 0
3.4657307 -1.5932366 0.25534511 0
5.5523849 -1.5791259 0.36754608 0
9.2791157 -1.5097716 0.33838162 0
9.2800131 -1.2897154 0.32858089 0
9.2794867 -1.076592 0.32167175 0
9.2795954 -0.88587707 0.31818226 0
9.2794743 -0.68941736 0.2890639 0
9.2786608 -0.48279428 0.29072154 0
9.2782478 -0.2743876 0.30980927 0
9.2781591 -0.060106248 0.30656365 0
9.2762842 0.13834813 0.30441493 0
9.2775412 0.32122314 0.30365923 0
9.2775669 0.49848479 0.31238267 0
9.278512 0.692532 0.30251622 0
9.2787991 0.8942377 0.30347133 0
9.2788658 1.1176736 0.31372577 0
-0.29266608 1.3314341 0.31213832 0
-0.1901741 1.3232744 0.32333183 0
9.2779245 1.3207773 0.30893007 0
-0.25681973 1.5158765 0.32650673 0
-0.18530655 1.4591618 0.32851195 0
9.2768135 1.5242481 0.29919505 0
-0.22788168 1.7128643 0.32676131 0
-0.18513012 1.6657689 0.27982676 0
0.52201319 1.7833618 0.2637713 0
0.69438934 1.7978374 0.29454303 0
0.98969555 1.783336 0.38583755 0
1.1026406 1.7988983 0.29541826 0
1.3339267 1.7847146 0.22158432 0
9.2763519 1.7268043 0.30932605 0
-2.0435429 1.8628464 0.35466611 0
-1.9163728 1.8722432 0.32937875 0
-1.6999025 1.8711338 0.34146333 0
-1.5200474 1.9225488 0.29973102 0
-0.81659216 1.8714128 0.32220194 0
-0.69253069 1.870966 0.31492198 0
-0.48600566 1.8702219 0.30499464 0
-0.24096245 1.8535131 0.30720523 0
-0.18118821 1.9093353 0.33174947 0
0.27781153 1.8068712 0.22674656 0
0.53078568 1.8079205 0.30455595 0
0.67821026 1.8041382 0.33518019 0
0.89314628 1.8072987 0.31040514 0
1.1159418 1.8092823 0.25193477 0
1.3270907 1.8037131 0.2160399 0
1.5211862 1.9120928 0.30274829 0
9.2758007 1.9538738 0.31995249 0
-1.4823539 2.1136203 0.26978442 0
-0.16101098 2.1041145 0.35166112 0
1.5197924 2.1370645 0.29506403 0
9.2754774 2.1463125 0.29161361 0
-1.4839565 2.3219864 0.28793052 0
-1.3553518 2.2310879 0.36437756 0
-0.1402622 2.2653246 0.326267 0
1.5251685 2.2858965 0.30391493 0
9.2767124 2.3044586 0.30558804 0
-1.4854627 2.5178318 0.30540371 0
-1.350177 2.5002437 0.35711193 0
1.5172611 2.4618704 0.30869842 0
9.2756624 2.5164013 0.31046006 0
-1.4868131 2.6934357 0.32137969 0
-1.3438715 2.7939105 0.29712898 0
1.5189018 2.7138269 0.34308788 0
9.2785091 2.728657 0.30678427 0
-1.4881163 2.8628702 0.3366144 0
-1.3409146 2.9310739 0.2681714 0
1.5255245 2.8390846 0.27244839 0
9.2762499 2.938632 0.31625462 0
-1.4895428 3.049283 0.29456204 0
9.2759171 3.1342435 0.31293383 0
9.2734661 3.3203683 0.31487012 0
9.2772007 3.5194929 0.31597078 0
9.2810202 3.7292109 0.29460377 0
9.281745 3.9100583 0.28681552 0
9.279438 4.1135659 0.26515377 0
9.2766142 4.3142958 0.24322635 0
9.2807989 4.4868975 0.25448447 0
9.2613373 4.6873121 0.21314669 0
36.489048 24.92749 0.20677161 0
36.901489 25.96563 0.22370315 0
37.352207 27.066973 0.24181151 0
36.041634 36.375908 0.20919752 0
34.706242 37.346062 0.20928311 0
32.155231 38.404484 0.22192025 0
27.540138 38.908379 0.21764588 0
27.429178 40.215225 0.22692299 0
31.679976 40.271641 0.20797586 0
31.400208 40.442616 0.20430779 0
32.270042 40.485359 0.21082592 0
32.842991 40.44627 0.25117469 0
33.154114 40.521965 0.21737003 0
34.052792 40.552235 0.22394013 0
29.569475 40.894955 0.2009902 0
25.011244 42.612679 0.2106173 0
30.971764 42.966621 0.21281815 0
28.449585 43.645889 0.27386808 0
23.123333 43.920547 0.20709443 0
17.687466 45.253819 0.21676517 0
21.741997 45.802925 0.20592642 0
18.430359 46.955433 0.20557094 0
23.53437 46.963791 0.20211887 0
24.280239 46.942329 0.20817828 0
23.784361 47.382565 0.20004129 0
0.79511702 -7.9114079 0.57432294 0
0.89032531 -7.9139767 0.51790226 0
1.1116245 -7.9184127 0.52393246 0
1.2778515 -7.9160995 0.50444984 0
1.4814357 -7.9179697 0.52866733 0
1.6957607 -7.9096437 0.51980752 0
1.8787931 -7.9256339 0.50003052 0
2.1276734 -7.9224968 0.50744873 0
2.3009052 -7.9228153 0.4936426 0
2.5022948 -7.9181404 0.49295649 0
2.6804838 -7.9324622 0.48657945 0
2.904901 -7.9327478 0.48839307 0
3.1008029 -7.9330387 0.48966789 0
3.3000216 -7.9333324 0.49099129 0
3.511517 -7.9166765 0.49980044 0
3.7074401 -7.9224391 0.52156407 0
3.8847191 -7.9341421 0.49540955 0
4.0634613 -7.9344559 0.49598604 0
4.2947745 -7.9153571 0.48817313 0
4.4678898 -7.9349928 0.49936861 0
4.7797217 -7.9206285 0.4930675 0
4.9107294 -7.913929 0.45944276 0
5.0981693 -7.9170046 0.44323602 0
5.314177 -7.9151011 0.48783755 0
5.5028443 -7.9180288 0.48160234 0
5.688189 -7.9325581 0.49583721 0
5.8935804 -7.9200006 0.52935159 0
6.0954394 -7.9175148 0.48002958 0
6.3239961 -7.9167142 0.55074126 0
6.4355536 -7.8925476 0.47420859 0
6.6721992 -7.8914356 0.50245965 0
7.3466768 -7.9201498 0.5724172 0
7.5186372 -7.9166088 0.5656507 0
7.7093587 -7.9148922 0.48017728 0
8.2315521 -7.9164076 0.52639544 0
-2.4897091 -4.2493973 0.5089488 0
2.5377109 -4.2810502 0.52541167 0
2.6488855 -4.2793684 0.56696755 0
0.032758713 -3.8565183 0.43569195 0
2.5214856 -3.807831 0.44707292 0
2.6300814 -3.9805622 0.59319776 0
2.5054796 -3.7384825 0.55551505 0
2.6498504 -3.7191162 0.56363243 0
2.4999456 -3.0634248 0.51521665 0
-0.52914286 -2.8278873 0.40995502 0
2.552381 -2.9566324 0.48195541 0
2.6713748 -2.9666264 0.50964296 0
2.9040434 -2.9143784 0.50752372 0
-0.5168013 -2.6873543 0.46199808 0
0.017583609 -2.6367993 0.54418814 0
2.7624216 -2.770546 0.54392946 0
2.9122932 -2.759938 0.4948931 0
3.4966035 -2.6719062 0.4272325 0
9.2768068 -2.6702955 0.47830221 0
-0.47612303 -2.4874325 0.48722848 0
0.028666338 -2.5236044 0.44003689 0
2.5208457 -2.4911332 0.53368127 0
2.6908314 -2.4757063 0.50545228 0
2.9294865 -2.4380267 0.46995726 0
6.8406444 -2.5438652 0.55903602 0
9.2764435 -2.5220184 0.49407405 0
-2.6455114 -2.26652 0.42928007 0
-2.4936991 -2.2310576 0.41235808 0
-1.3195539 -2.3143451 0.49568897 0
-0.4371379 -2.2984757 0.51144415 0
2.5364873 -2.236897 0.41706678 0
2.7369435 -2.2647116 0.49113271 0
2.8564262 -2.2928362 0.53312087 0
3.7692802 -2.2525861 0.43199277 0
6.8415718 -2.3879228 0.40866351 0
9.2763348 -2.3117309 0.53719395 0
-1.3059886 -2.1161714 0.49460632 0
-0.41610774 -2.1417842 0.54283923 0
-0.34752008 -2.0730944 0.48704785 0
2.8525651 -2.1670854 0.53058386 0
4.152544 -2.0098858 0.48677334 0
4.3176799 -2.1114478 0.48970985 0
6.836853 -2.0909674 0.49001512 0
9.2742281 -2.099416 0.55829763 0
-2.0983901 -1.8363918 0.47881424 0
-1.8758874 -1.8477318 0.48219752 0
-1.7074728 -1.8589622 0.48832768 0
-1.4756441 -1.8753859 0.48161259 0
-1.3400254 -1.947331 0.49671018 0
-0.33739185 -1.8291326 0.51024598 0
0.066532895 -1.8302113 0.46875197 0
2.5197883 -1.8311832 0.53747612 0
2.7089727 -1.8193114 0.56666851 0
2.9294622 -1.8384018 0.52195328 0
3.0936451 -1.8103367 0.5232172 0
3.2525716 -1.8193474 0.52639586 0
3.4898319 -1.8332827 0.52310216 0
3.683064 -1.8481243 0.50755978 0
3.9062138 -1.8945943 0.52319145 0
4.1557474 -1.9205251 0.48288345 0
4.3126273 -1.9045292 0.5367499 0
4.4669018 -1.8415364 0.55387801 0
4.8794122 -1.8186479 0.44610006 0
5.0324349 -1.8323886 0.41145682 0
5.4639072 -1.8441684 0.53073311 0
5.7824016 -1.8373464 0.53251988 0
6.0303884 -1.8297194 0.5326013 0
6.8296123 -1.8965522 0.46895754 0
7.1586347 -1.8552133 0.45167446 0
7.5469241 -1.8453451 0.42422187 0
7.6235819 -1.8182352 0.48769665 0
9.2758036 -1.8969239 0.55127883 0
-2.4453387 -1.782963 0.4343577 0
-1.6837431 -1.6249951 0.51108974 0
-0.88175994 -1.7525111 0.50410795 0
-0.70836151 -1.7637999 0.48933893 0
-0.46595755 -1.6822557 0.51613683 0
-0.31916302 -1.7088051 0.53064698 0
-0.13498911 -1.7838247 0.44788307 0
0.039469589 -1.7722349 0.51006627 0
2.5068674 -1.7719798 0.54298353 0
2.6466889 -1.7690581 0.4954339 0
2.9923279 -1.7054727 0.50516438 0
3.1772649 -1.6406183 0.42681003 0
3.3010104 -1.6797822 0.58251071 0
3.5469744 -1.6468034 0.52606922 0
3.7142165 -1.7872692 0.46086612 0
4.1601791 -1.7974011 0.558029 0
4.3305845 -1.7796725 0.44820628 0
4.5053449 -1.7813406 0.52118045 0
4.696733 -1.7799369 0.49559787 0
4.8818145 -1.7740531 0.55582237 0
5.0901194 -1.7691873 0.49483144 0
5.3000436 -1.7471695 0.57923961 0
5.5094223 -1.6921304 0.51763016 0
5.6405945 -1.7735778 0.5234251 0
5.9010997 -1.6808715 0.44884086 0
6.1035857 -1.7443032 0.45554984 0
6.9160881 -1.7810887 0.51830482 0
7.0928683 -1.7646978 0.49026346 0
7.3246703 -1.7655239 0.5631811 0
7.4991693 -1.7712733 0.52538168 0
7.6620612 -1.7400444 0.51541442 0
9.2759333 -1.6837453 0.53349662 0
-1.8985587 -1.5200562 0.51492035 0
-1.7790657 -1.56565 0.47865114 0
-1.0013585 -1.5023406 0.43035269 0
-0.90815312 -1.4979079 0.47455037 0
-0.68423361 -1.5531337 0.49065 0
-0.50133485 -1.5916435 0.53734487 0
3.4031177 -1.5558467 0.50101185 0
5.548275 -1.5884259 0.57750332 0
9.2760639 -1.4767436 0.48175347 0
9.2743006 -1.2644339 0.51841515 0
9.2749472 -1.084617 0.51389557 0
9.2746611 -0.89963549 0.51109707 0
9.2742176 -0.7140854 0.51230443 0
9.2733297 -0.4925153 0.53842533 0
9.2753553 -0.30032313 0.53813487 0
9.274312 -0.10235725 0.5287798 0
9.2739611 0.11244883 0.5259136 0
9.2738857 0.29207522 0.49615702 0
9.2722845 0.48369476 0.5127579 0
9.2716198 0.70651758 0.49990505 0
9.2708054 0.90079379 0.51906133 0
9.2707958 1.103354 0.51115346 0
-1.2813975 1.3700221 0.41053632 0
-0.72241592 1.3551779 0.42891884 0
-0.47744194 1.3374563 0.43639889 0
-0.35931426 1.3044097 0.42287785 0
9.2701168 1.3119792 0.52516657 0
-1.3014596 1.5146053 0.45107979 0
-1.1385379 1.5219374 0.44386005 0
-0.52398783 1.4993085 0.47125816 0
-0.27493742 1.477872 0.45823237 0
9.2717848 1.5171295 0.52067155 0
-1.3266277 1.776216 0.47834468 0
-1.0912625 1.6693487 0.4879795 0
-0.89134812 1.7023975 0.48956394 0
-0.72352725 1.7556925 0.51261646 0
-0.27845097 1.700839 0.49715814 0
-0.19898415 1.6347358 0.4826591 0
0.0013878066 1.7952915 0.59822881 0
9.2699661 1.7123487 0.52164149 0
-2.0471661 1.8615335 0.55075258 0
-1.899143 1.8714917 0.49895144 0
-1.7173133 1.870648 0.50169706 0
-1.4796579 1.8855747 0.50029808 0
-1.2791672 1.8968672 0.52298397 0
-1.1309061 1.9214952 0.51685238 0
-0.86783892 1.8616091 0.53578979 0
-0.68251723 1.9006912 0.54277843 0
-0.50058931 1.8958994 0.53610265 0
-0.25220245 1.8392911 0.49931169 0
-0.1759192 1.9044518 0.51059473 0
0.34310007 1.9660058 0.41976473 0
0.66232061 1.9286103 0.41993368 0
0.87031621 1.9396373 0.4259834 0
1.0819389 1.9065273 0.43040997 0
1.396626 1.8863113 0.47790205 0
1.4819119 1.9091927 0.44565928 0
9.2694912 1.9377441 0.53076094 0
-1.4822993 2.1028938 0.49853671 0
-1.3233625 2.0887895 0.54298866 0
-1.0518606 2.03422 0.55896795 0
-0.8906939 2.1165476 0.57591629 0
-0.75917464 2.1019342 0.5889129 0
-0.51501405 2.0806792 0.58324736 0
-0.37046638 2.0866125 0.58716959 0
-0.16526809 2.1025686 0.50358003 0
0.36419523 2.1066997 0.42936742 0
0.43348336 2.1563816 0.41771239 0
0.69081557 2.1082189 0.42625681 0
0.91977185 2.0892797 0.42149615 0
1.1135147 2.0737948 0.43149084 0
1.4863658 2.0645552 0.45823386 0
9.2667589 2.1207116 0.56003928 0
-1.442557 2.3239298 0.54019576 0
-1.3572843 2.2508748 0.54637933 0
-1.0898852 2.2177982 0.59720159 0
-0.16367531 2.2190542 0.59195328 0
0.36719966 2.2757587 0.42484647 0
0.45708871 2.342917 0.43043265 0
0.64150453 2.263669 0.43170303 0
0.91521186 2.2853298 0.43425784 0
1.0834626 2.2816384 0.42967319 0
1.2216125 2.3010044 0.43136993 0
1.5073034 2.2680762 0.44641554 0
9.2670689 2.2765207 0.50641131 0
-1.4854889 2.5180087 0.51367658 0
-1.35276 2.49793 0.55750501 0
-0.82299662 2.4462297 0.49392903 0
0.30375803 2.5049043 0.44065198 0
0.48538947 2.5164258 0.43060097 0
0.66312146 2.4433045 0.43331778 0
0.94606733 2.4682705 0.42347616 0
1.1032649 2.4966407 0.4438706 0
1.2748814 2.510781 0.43371761 0
1.5153924 2.4611893 0.43835604 0
9.2665758 2.4796855 0.49170953 0
-1.4866631 2.6705265 0.53663701 0
0.35172924 2.7499931 0.43320689 0
0.48545706 2.7396016 0.43536872 0
0.66601115 2.6710646 0.43576026 0
0.99311638 2.6912022 0.43339252 0
1.115114 2.678932 0.44089624 0
1.2786021 2.7210426 0.43040848 0
1.5175171 2.6291811 0.40945089 0
9.2667217 2.7214165 0.52807361 0
-1.4885274 2.9144993 0.4574075 0
-1.3450475 2.8879628 0.53010058 0
0.32633829 2.8834758 0.41495597 0
0.50411499 2.8777101 0.43514091 0
0.7015934 2.8606079 0.44566751 0
0.81021357 2.8405414 0.42486322 0
1.1003647 2.8358886 0.43647942 0
1.284343 2.8811231 0.43897623 0
1.4657152 2.8619003 0.44106597 0
9.2678556 2.9058809 0.51465839 0
-1.4895657 3.0494404 0.47474375 0
9.2683125 3.0845797 0.52798659 0
9.2681484 3.3049507 0.52439147 0
9.2655163 3.5135634 0.46633133 0
9.2668819 3.7016888 0.49779734 0
9.2653427 3.9075556 0.49638498 0
9.2658815 4.1250887 0.48646432 0
9.266036 4.3205433 0.48900381 0
9.2678223 4.512568 0.49809384 0
9.2613945 4.6700211 0.45087552 0
0.799523 -7.8934627 0.65306437 0
0.91102004 -7.9135289 0.65056413 0
1.1125625 -7.9201703 0.70566928 0
1.3001393 -7.9178543 0.74913633 0
1.461706 -7.9201684 0.71058863 0
1.7225837 -7.9257159 0.69759494 0
1.9455788 -7.9253445 0.66242445 0
2.1172478 -7.920167 0.723239 0
2.3006539 -7.920166 0.72757882 0
2.5405765 -7.9128284 0.73880833 0
2.6858568 -7.9188652 0.73068905 0
2.9294853 -7.9201646 0.74485427 0
3.1241994 -7.9201632 0.75092787 0
3.3226142 -7.9201627 0.75750214 0
3.5242317 -7.9201622 0.76449305 0
3.7301764 -7.9201617 0.77202666 0
3.9398575 -7.9201612 0.78001374 0
4.0822968 -7.9201603 0.78565228 0
4.2573881 -7.9200439 0.73438358 0
4.4700165 -7.9153156 0.71122116 0
4.6338549 -7.9149551 0.69389814 0
4.8753729 -7.9159002 0.71298975 0
5.1083207 -7.9156089 0.71485192 0
5.3257899 -7.9139428 0.72701687 0
5.48493 -7.915144 0.72342658 0
5.6910057 -7.912159 0.72917074 0
5.8966541 -7.8979478 0.71228445 0
6.1640911 -7.896719 0.74720526 0
6.489707 -7.8952007 0.78725886 0
6.9937811 -7.9189529 0.72269988 0
7.388896 -7.9201584 0.69043314 0
7.5557842 -7.9012909 0.66609126 0
7.7316895 -7.9010773 0.6986118 0
7.9228997 -7.8996344 0.69998115 0
8.0258636 -7.9177051 0.65652955 0
8.2104759 -7.9199286 0.74704325 0
2.5132804 -4.2829747 0.72320116 0
2.6459434 -4.2804165 0.74688357 0
2.5054801 -3.9801867 0.74804562 0
2.4917665 -3.0805612 0.68103051 0
2.5301182 -2.9175422 0.71136457 0
2.6677468 -2.9651685 0.72453922 0
2.9049177 -2.8942518 0.72541982 0
-1.652669 -2.7373049 0.78777027 0
-0.54419303 -2.636838 0.6003058 0
2.5054758 -2.6243396 0.70742136 0
2.6765943 -2.72682 0.7406646 0
2.9160736 -2.6855111 0.70190531 0
9.2749615 -2.6893995 0.68262577 0
-0.51440048 -2.4872415 0.6559273 0
2.7749414 -2.5134254 0.73694247 0
2.925617 -2.5069366 0.68168277 0
3.5780742 -2.5628631 0.7248311 0
9.2723799 -2.4877503 0.73224235 0
-1.4010856 -2.3573487 0.68806463 0
-1.2439672 -2.3118665 0.65615398 0
-0.46653944 -2.2548282 0.68118507 0
2.7899745 -2.2744632 0.71891254 0
2.8814034 -2.2761011 0.73599702 0
3.7838597 -2.2294245 0.6277076 0
5.3390326 -2.2199125 0.76601601 0
6.839282 -2.3546615 0.69853449 0
9.274272 -2.3074687 0.69228476 0
-1.3088032 -2.1318364 0.67766726 0
-0.43688193 -2.1000729 0.68302703 0
-0.26192173 -2.1018431 0.6908251 0
4.1526074 -2.009743 0.73244816 0
4.325963 -2.0440135 0.65880346 0
6.6525874 -2.0094826 0.60987818 0
6.8354626 -2.0703409 0.66781074 0
9.2759485 -2.0953178 0.68321437 0
-2.4458911 -1.8362937 0.68302464 0
-2.0997632 -1.837558 0.6823262 0
-1.8765941 -1.8482065 0.67467725 0
-1.7085128 -1.8595905 0.69442725 0
-1.4769143 -1.8761753 0.67321897 0
-1.3407428 -1.9367218 0.65166891 0
-0.40411901 -1.8372066 0.74527633 0
-0.3700819 -1.8603868 0.67028832 0
0.070198178 -1.821563 0.71022761 0
2.5169199 -1.8326269 0.70714128 0
2.9231007 -1.8527709 0.71552372 0
3.0904627 -1.8101938 0.71651286 0
3.2780135 -1.8210671 0.75872266 0
3.4860542 -1.8331115 0.73443913 0
3.7484474 -1.8280196 0.67465782 0
3.9308498 -1.8962277 0.72668451 0
4.1564445 -1.9026823 0.72571295 0
4.3288145 -1.871761 0.67854393 0
4.6398921 -1.8394164 0.62840796 0
4.8590817 -1.8254656 0.68681884 0
5.0247869 -1.8341409 0.69693947 0
5.461638 -1.8475492 0.75249964 0
5.71455 -1.8186884 0.75817192 0
6.0226593 -1.830719 0.75524122 0
6.6580811 -1.856226 0.60650283 0
6.8257709 -1.8824404 0.71760947 0
7.1502686 -1.8568382 0.71248502 0
7.233068 -1.8181567 0.6325351 0
7.5378542 -1.8470584 0.69811642 0
7.6181345 -1.8327823 0.68732345 0
9.2763567 -1.8719468 0.680408 0
-2.4595571 -1.7722943 0.7072593 0
-1.6483555 -1.6356888 0.71384221 0
-1.4791403 -1.7036756 0.79734415 0
-1.0767221 -1.6053975 0.78995407 0
-0.89062792 -1.7517449 0.67330611 0
-0.70777887 -1.7652911 0.68460906 0
-0.46799219 -1.697504 0.72238481 0
-0.35232714 -1.7021734 0.67253625 0
-0.011240005 -1.7631893 0.70581806 0
0.031763949 -1.7739651 0.67931795 0
2.5533078 -1.7708088 0.66790855 0
2.6457772 -1.7710441 0.68438852 0
2.9999282 -1.6744401 0.70716941 0
3.2779572 -1.6268542 0.77992868 0
3.483315 -1.6734505 0.74690056 0
3.6893108 -1.760095 0.69224876 0
4.1602211 -1.7973046 0.71937805 0
4.3371353 -1.7796952 0.7358219 0
4.4948106 -1.7770618 0.68281925 0
4.6874247 -1.7826729 0.70579493 0
4.8957238 -1.7816082 0.72548884 0
5.1065474 -1.7750195 0.67029315 0
5.2958021 -1.7493432 0.78168756 0
5.5030985 -1.7087904 0.72492868 0
5.6651897 -1.684168 0.68015426 0
5.9077415 -1.6747842 0.73705167 0
6.1126757 -1.7477849 0.67663449 0
6.2206283 -1.775372 0.60036135 0
6.9338737 -1.7766224 0.68244171 0
7.1066294 -1.7770134 0.69679427 0
7.30968 -1.7658333 0.71025062 0
7.5182176 -1.767519 0.70377046 0
7.6652403 -1.7452719 0.63793427 0
9.2753563 -1.6611599 0.64364308 0
-2.0098248 -1.5151707 0.77008653 0
-1.9122633 -1.513422 0.73865223 0
-1.7608982 -1.5821623 0.73104656 0
-1.2338219 -1.5691441 0.74560964 0
-1.086459 -1.4446611 0.68441868 0
-0.90422088 -1.4868833 0.71880955 0
-0.69882393 -1.5354824 0.74896741 0
-0.48905024 -1.5899674 0.74598342 0
3.1412506 -1.580483 0.7068367 0
3.3552632 -1.521302 0.71230352 0
9.2756968 -1.504016 0.6595372 0
9.2760487 -1.3018287 0.68795395 0
9.2760057 -1.0952468 0.69827616 0
9.2751808 -0.88061506 0.67480761 0
9.276824 -0.66857404 0.67269725 0
9.2763033 -0.47818908 0.67323107 0
9.2759647 -0.30629799 0.69110233 0
9.2745323 -0.088371687 0.69406974 0
9.2734375 0.13259521 0.6832189 0
9.2748318 0.31460729 0.67000705 0
9.2742138 0.51474071 0.67308271 0
9.2747736 0.70185679 0.68955845 0
9.2768707 0.90029705 0.68205744 0
9.2736378 1.1083866 0.69621265 0
9.2747679 1.3293986 0.68832409 0
9.2751226 1.5435547 0.67429584 0
-0.055324908 1.796684 0.75101888 0
9.2765303 1.7376961 0.66164416 0
-2.050705 1.8602514 0.7422601 0
-1.905894 1.8709095 0.7112096 0
-1.7111719 1.8700657 0.70372683 0
-1.5232577 1.886614 0.70171112 0
-1.374527 1.8635215 0.72106457 0
-0.68561178 1.8255447 0.74929261 0
-0.50342959 1.8574544 0.65521228 0
-0.29807749 1.8580246 0.65216321 0
9.2749968 1.9229192 0.67745793 0
-1.4826535 2.1466849 0.64846057 0
-1.3641136 2.0242138 0.74755788 0
-0.82226944 2.0857604 0.60856819 0
-0.76532698 2.1722517 0.63009882 0
-0.417593 2.1934931 0.62961054 0
-0.26737404 2.0955555 0.61287159 0
-0.16672182 2.0958934 0.62885946 0
9.2753315 2.1188881 0.69307047 0
-1.4840068 2.3223205 0.68550932 0
-1.3084611 2.3002195 0.67778409 0
-1.0616245 2.3261867 0.64241898 0
-0.91884255 2.2500048 0.61439538 0
-0.72511029 2.2490191 0.6378442 0
-0.56768513 2.2314453 0.62942779 0
9.2730808 2.308357 0.66697705 0
-1.4855161 2.5181901 0.72715873 0
-1.3533428 2.5930762 0.74532115 0
-0.91020012 2.4051208 0.66810977 0
9.2729149 2.5037963 0.65936351 0
-1.4870329 2.7168164 0.65599567 0
9.2760363 2.6928809 0.66341889 0
-1.4883589 2.8889375 0.68869466 0
-1.3475158 2.8857498 0.7216143 0
9.2737818 2.9297416 0.66898113 0
-1.4895968 3.049654 0.71921653 0
9.2736349 3.1395476 0.67324448 0
9.2700272 3.3409181 0.67450303 0
9.2752466 3.5023901 0.68626183 0
9.2747402 3.7075202 0.70402682 0
9.2743263 3.9008663 0.69552433 0
9.2715549 4.1154928 0.69631684 0
9.26618 4.3189874 0.73414266 0
9.2695198 4.4877262 0.70004302 0
0.7964977 -7.8969955 0.9376651 0
0.89892763 -7.9139137 0.89325106 0
1.1136237 -7.9291735 0.90071261 0
1.2765492 -7.9152408 0.86675781 0
1.4897211 -7.9120646 0.87751865 0
1.6789529 -7.9309373 0.84842598 0
1.8568296 -7.9172592 0.83664274 0
2.1122656 -7.9254975 0.87063116 0
2.2937198 -7.9269171 0.83461064 0
2.4911149 -7.9459085 0.82437849 0
2.6822696 -7.9464874 0.82580447 0
2.8759093 -7.9470739 0.8271879 0
3.0729258 -7.9476709 0.82851827 0
3.2728736 -7.9482746 0.82980633 0
3.4803421 -7.9256268 0.82723117 0
3.6753001 -7.9257917 0.86157382 0
3.824805 -7.9499397 0.83300054 0
4.0397544 -7.9505882 0.83410728 0
4.2589059 -7.9512491 0.83517051 0
4.4487267 -7.9233913 0.82813805 0
4.7363191 -7.9185147 0.9054268 0
4.9256196 -7.9173975 0.90156919 0
5.1175933 -7.9199629 0.92349607 0
5.3334913 -7.9150515 0.8936367 0
5.5401454 -7.9125247 0.89953303 0
5.8908439 -7.9185305 0.841699 0
6.1223264 -7.9206314 0.8802774 0
6.3669629 -7.9283538 0.86600161 0
6.6967006 -7.8942242 0.81156564 0
6.965786 -7.8968143 0.93171954 0
7.3563652 -7.9215412 0.96912658 0
7.5199943 -7.9180622 0.90706503 0
7.6844749 -7.90523 0.89076608 0
7.9241462 -7.9207916 0.99528563 0
8.2528448 -7.9140873 0.83646452 0
-2.4696462 -4.2233596 0.82476425 0
-1.6965339 -4.2499223 0.90106517 0
-1.4780049 -4.2338743 0.87126446 0
-1.3285272 -4.2324076 0.90615249 0
-1.0981461 -4.2562442 0.97094679 0
-0.93410587 -4.2368865 0.89137554 0
-0.71574008 -4.238905 0.95914447 0
-0.51199555 -4.2651296 0.96434385 0
-0.31400865 -4.2890701 0.9619081 0
-0.065420263 -4.3184042 0.89320046 0
0.072497346 -4.2594275 0.90369284 0
0.27751407 -4.2925963 0.96751475 0
0.43290433 -4.2810035 0.96914291 0
0.87904608 -4.2555327 0.97978079 0
1.4709411 -4.262722 0.9793365 0
2.5096865 -4.2256618 0.94452679 0
7.6825199 -4.2556086 0.95561153 0
-1.2279303 -4.1094775 0.95888484 0
2.5144415 -4.0037346 0.93288928 0
-1.7957282 -3.9310477 0.9725548 0
0.015497565 -3.9247434 0.89082408 0
2.5149584 -3.8131819 0.93789363 0
-1.2079062 -3.6371286 0.92635977 0
-1.1933742 -3.7904887 0.88460779 0
-0.6237185 -3.6878023 0.95764023 0
0.6452924 -3.6462483 0.99429822 0
1.2423153 -3.7123473 0.99425769 0
2.5154397 -3.6361229 0.94250339 0
-1.2410074 -3.5092278 0.95452207 0
2.5160387 -3.4158547 0.94818652 0
2.4950943 -3.1245267 0.93222904 0
-1.7316749 -2.8915186 0.82274365 0
-0.99606752 -2.9599845 0.97844434 0
0.10656416 -2.973289 0.99507904 0
2.536633 -2.926693 0.92715329 0
2.6592088 -2.8723276 0.92393339 0
2.9036727 -2.9137058 0.95213532 0
4.4714203 -2.9218147 0.99675012 0
5.1363401 -2.911195 0.96651989 0
6.8321433 -2.8369579 0.84550691 0
-1.6300209 -2.665606 0.87028325 0
2.6830635 -2.6641912 0.93440962 0
2.9139116 -2.7222495 0.92297339 0
5.380281 -2.722033 0.97142529 0
5.4004126 -2.6561899 0.97235739 0
5.9360161 -2.6596935 0.98549294 0
7.4935246 -2.6590421 0.99299812 0
7.6840653 -2.6572053 0.9300499 0
9.2728786 -2.6888657 0.9110781 0
-2.0981359 -2.4617305 0.97758794 0
-1.5413815 -2.4621687 0.87461263 0
-1.3424363 -2.4807022 0.84541726 0
2.7545993 -2.5171652 0.94044572 0
2.9254408 -2.5066419 0.89158964 0
3.0720615 -2.4768963 0.95618427 0
5.4440756 -2.5061033 0.97446299 0
5.9183221 -2.5005844 0.98696244 0
6.8379674 -2.4979448 0.89644158 0
7.0027018 -2.5106654 0.98728776 0
7.5750008 -2.5797803 0.99482536 0
9.2739077 -2.5067379 0.9226293 0
-2.0839124 -2.2684078 0.97867131 0
-1.4529728 -2.3113451 0.86748105 0
2.5920496 -2.3930759 0.87288451 0
2.7397792 -2.2840991 0.90398073 0
2.8811743 -2.2600822 0.93849778 0
3.0969114 -2.2358429 0.97101641 0
3.2421305 -2.2771442 0.99586844 0
3.7148104 -2.3004017 0.80751061 0
5.3643308 -2.2214606 0.94671202 0
5.4905796 -2.3382089 0.97679806 0
5.8654552 -2.3819516 0.97954416 0
6.8370981 -2.3235149 0.9749229 0
7.0041037 -2.3382034 0.98937869 0
7.2217946 -2.2515359 0.99376369 0
7.5397263 -2.2736678 0.99751019 0
7.6776128 -2.3123252 0.93334711 0
9.2718668 -2.3175466 0.95088172 0
-2.1334417 -2.1702712 0.91407084 0
-1.7283354 -2.1486406 0.91889024 0
-1.4497405 -2.1412427 0.93043631 0
-1.3931361 -2.1868699 0.89401662 0
-0.47465181 -2.0511389 0.80848491 0
-0.26500902 -2.1090086 0.88617706 0
2.8933825 -2.103157 0.95590711 0
4.1526499 -2.0096464 0.8985315 0
4.3023696 -2.1044896 0.92057872 0
5.1205416 -2.1669507 0.92587304 0
5.39078 -2.0649805 0.89072281 0
5.8708496 -2.0547225 0.99110639 0
6.1967306 -2.10395 0.98554909 0
6.2080994 -2.0010567 0.98683357 0
6.6526513 -2.009326 0.85518086 0
6.8377352 -2.0907762 0.84724772 0
7.4073043 -2.1023481 0.99760485 0
9.2714758 -2.0903795 0.92217636 0
-2.4513733 -1.8644483 0.92642474 0
-2.3875575 -1.8567383 0.9695251 0
-2.1007788 -1.8384203 0.83279461 0
-1.8586212 -1.8401639 0.91711146 0
-1.7193912 -1.8636709 0.89592117 0
-1.4934397 -1.8603626 0.91941124 0
-1.3002499 -1.8866755 0.89063406 0
-1.0973194 -1.9662843 0.83321786 0
-0.92049623 -1.9272251 0.87448764 0
-0.75130582 -1.8888102 0.91386676 0
-0.44141445 -1.857372 0.84810603 0
-0.38589716 -1.8183789 0.88851905 0
0.0534449 -1.8353372 0.91882527 0
2.5200577 -1.8644537 0.90932798 0
2.6746476 -1.8588667 0.8679508 0
2.9300978 -1.8359289 0.9064365 0
3.1013813 -1.810909 0.91073358 0
3.2608254 -1.8200431 0.89434123 0
3.4648373 -1.8292593 0.96388572 0
3.6814358 -1.8470463 0.87739325 0
3.8937976 -1.8744845 0.91443866 0
4.156486 -1.9025851 0.89028317 0
4.2999921 -1.8985783 0.87022525 0
4.4582496 -1.8436321 0.89660001 0
4.6330771 -1.8410382 0.89330757 0
4.8732877 -1.8205934 0.90684688 0
5.0703325 -1.9036813 0.95307791 0
5.2052336 -1.825533 0.9002763 0
5.4687753 -1.8364296 0.90358686 0
5.7102671 -1.8188366 0.97036737 0
6.0149708 -1.8317136 0.97671235 0
6.6581445 -1.8560686 0.85048902 0
6.8243856 -1.9017057 0.89794052 0
7.1419444 -1.8584549 0.97198135 0
7.2268643 -1.8217145 0.90197837 0
7.528831 -1.848763 0.97061187 0
7.6222296 -1.820394 0.9046945 0
9.2724867 -1.8751926 0.91033489 0
-2.4761531 -1.7737933 0.8885498 0
-2.2884288 -1.7614267 0.95110232 0
-2.108139 -1.736805 0.96885455 0
-1.9016229 -1.7269906 0.94117141 0
-1.6724129 -1.6762158 0.89576149 0
-1.4929422 -1.7223113 0.9102627 0
-1.3198051 -1.7844837 0.88550216 0
-0.91589177 -1.6953318 0.86186612 0
-0.7048173 -1.7249236 0.89599687 0
-0.4491052 -1.7146982 0.89267802 0
-0.37332508 -1.6807363 0.85941607 0
0.038209904 -1.7755882 0.93432564 0
2.5273829 -1.7684221 0.8388142 0
2.6377482 -1.7762587 0.86222124 0
2.9962876 -1.6806788 0.90611458 0
3.0949125 -1.7057674 0.9660815 0
3.2869227 -1.6674045 0.93650216 0
3.4835787 -1.6896929 0.89115763 0
3.6687541 -1.7495718 0.91212404 0
4.1602626 -1.7972072 0.88252586 0
4.3560524 -1.7763423 0.90296572 0
4.532526 -1.77939 0.90708381 0
4.7099633 -1.7821214 0.89289892 0
4.9600887 -1.7884386 0.92732209 0
5.1078949 -1.7704735 0.87734854 0
5.3082771 -1.7748495 0.98023748 0
5.5163999 -1.6998681 0.94499511 0
5.7275023 -1.6847018 0.96481466 0
5.8879313 -1.7164575 0.93253791 0
6.1027527 -1.7533602 0.8876093 0
6.2617359 -1.7706636 0.86964417 0
6.6398325 -1.7728697 0.98854971 0
6.9093704 -1.7775197 0.88004202 0
7.1237822 -1.7732611 0.86399823 0
7.3136449 -1.7774181 0.95121163 0
7.5043597 -1.7711009 0.93602926 0
7.6581569 -1.7559516 0.89105165 0
9.2725534 -1.6568183 0.90059215 0
-2.0376871 -1.574657 0.9209429 0
-1.8900688 -1.5248096 0.86917627 0
-1.7310034 -1.5842608 0.89017874 0
-0.8611474 -1.5056155 0.80187058 0
-0.65947324 -1.5498527 0.8210125 0
-0.49454287 -1.5846146 0.82477885 0
3.1829605 -1.5955098 0.80363631 0
3.3287177 -1.5486108 0.92738366 0
3.4304519 -1.5728059 0.92330027 0
5.5502353 -1.5787423 0.91167235 0
5.6302052 -1.5617658 0.90470421 0
9.2722559 -1.48216 0.87817097 0
9.2714586 -1.2921189 0.93182904 0
9.2709427 -1.0931884 0.9075973 0
9.2712383 -0.90093398 0.91123432 0
9.2728109 -0.72177923 0.91084319 0
9.2725811 -0.48852205 0.90734482 0
9.2715349 -0.28752342 0.91415054 0
9.2717829 -0.10937779 0.91970855 0
9.2709627 0.1021313 0.92407042 0
9.2715607 0.2931827 0.89811677 0
9.2702055 0.48439005 0.91709679 0
9.2706251 0.68770099 0.91420007 0
9.2708254 0.90147257 0.92040449 0
9.2687778 1.1041733 0.913185 0
9.2692976 1.2912719 0.92248809 0
9.2683792 1.5028297 0.91179907 0
-0.057681017 1.7953691 0.93171215 0
9.2684135 1.7012516 0.91258126 0
-2.0533261 1.8593018 0.88411701 0
-1.8958843 1.855969 0.93718338 0
-1.7260133 1.8527293 0.94384515 0
-1.4925368 1.8485599 0.91281438 0
-1.3721968 1.9234152 0.91595078 0
-0.6824134 1.8336643 0.94550055 0
-0.53320098 1.8415365 0.95053881 0
-0.31126738 1.8070201 0.92601669 0
9.2677393 1.9024923 0.90203369 0
9.2661018 2.1143196 0.92135274 0
-1.3612647 2.3102193 0.94897258 0
9.2654562 2.3119428 0.90569305 0
-1.355902 2.5907831 0.94386339 0
9.2675915 2.5166287 0.91045827 0
-1.4868767 2.6938653 0.82227737 0
9.2666149 2.7262359 0.90421563 0
-1.4883815 2.8890934 0.86847466 0
-1.3503084 2.8832457 0.93827415 0
9.266984 2.9319687 0.92275316 0
-1.4896206 3.049818 0.90696967 0
9.2686977 3.1172109 0.91863936 0
9.2688236 3.2913871 0.89187717 0
9.2677488 3.5054617 0.87532049 0
9.2673368 3.6867235 0.90530545 0
9.26583 3.912745 0.89990139 0
9.2653494 4.1182556 0.88171786 0
9.2612658 4.2843575 0.90781897 0
9.2598848 4.4861727 0.89957684 0
9.2632322 4.6076312 0.89410961 0
0.78450167 -8.0804453 1.0095785 0
0.92511451 -7.8973551 1.1335487 0
1.2548602 -7.9069881 1.1533757 0
1.4744363 -7.9017959 1.1550876 0
1.7318966 -7.9211273 1.0823772 0
1.9434509 -7.9204407 1.0581895 0
2.1244342 -7.9163842 1.0960127 0
2.2875285 -7.9162292 1.0972672 0
2.4900677 -7.9146023 1.1217735 0
2.6676855 -7.9168801 1.0732501 0
2.9295487 -7.9201641 1.0429677 0
3.1242688 -7.9201636 1.0514874 0
3.3548265 -7.9126205 1.0872297 0
3.5471625 -7.9124641 1.1249225 0
3.7302651 -7.9201617 1.0810854 0
3.9399531 -7.9201608 1.0922904 0
4.131279 -7.9215202 1.0510013 0
4.3000202 -7.9113274 1.0886315 0
4.5109544 -7.9146762 1.1151876 0
4.7748766 -7.925108 1.1086527 0
4.9383879 -7.9197936 1.0736104 0
5.1183414 -7.9187651 1.0671978 0
5.3370361 -7.916471 1.0664645 0
5.4927468 -7.9183512 1.0947628 0
5.7213383 -7.9149981 1.0611162 0
5.8939648 -7.9162087 1.1361126 0
6.1409369 -7.9151907 1.1000745 0
6.3205643 -7.9126391 1.1092601 0
6.4888883 -7.9089684 1.1064039 0
6.6755381 -7.9058867 1.150786 0
6.9122028 -7.9225292 1.1007001 0
7.1546173 -7.9222589 1.1872164 0
7.5116911 -7.9208727 1.0727639 0
7.7184677 -7.9198074 1.0994004 0
7.8568239 -7.8843551 1.0484972 0
8.036171 -7.8839526 1.1006048 0
8.2598591 -7.9187665 1.1102991 0
-2.5064518 -4.2556133 1.1228548 0
-1.8096054 -4.2942629 1.0061386 0
-1.2192384 -4.2635064 1.065239 0
-1.097276 -4.2775669 1.0170318 0
-0.68654585 -4.2801113 1.0411605 0
-0.48456043 -4.2653475 1.0065541 0
-0.094675958 -4.30971 1.0381563 0
0.077612929 -4.2593651 1.0590057 0
0.35246062 -4.2569771 1.0200273 0
0.47479773 -4.2617178 1.014418 0
0.61837173 -4.2250824 1.0099292 0
1.2255142 -4.2635098 1.014307 0
2.5113406 -4.2547445 1.1440747 0
3.6073339 -4.2598438 1.0400019 0
3.8014627 -4.2591648 1.0073302 0
4.9304147 -4.2566075 1.054529 0
5.1392412 -4.2471662 1.010996 0
5.714088 -4.3031902 1.078362 0
5.8943462 -4.2452903 1.0734986 0
6.0662003 -4.2628465 1.0654659 0
6.2190847 -4.2731581 1.0929474 0
6.4693871 -4.2453175 1.128966 0
6.7630548 -4.2680135 1.1253873 0
6.8932638 -4.2815824 1.1263037 0
7.6666183 -4.2529798 1.1610613 0
-1.2188543 -4.0580626 1.0164797 0
-0.59196872 -4.1586561 1.0724933 0
1.2926807 -4.1491632 1.0379184 0
2.5054805 -4.109283 1.1144676 0
2.6122208 -4.0206985 1.1102263 0
3.3230824 -4.0650005 1.0550709 0
4.515141 -4.1252108 1.0880467 0
5.8236465 -4.0830832 1.0847499 0
6.3660779 -4.1854825 1.1317149 0
-0.6133759 -3.8711696 1.0266483 0
0.64379871 -3.8719432 1.0572252 0
2.615767 -3.9027164 1.0878516 0
4.5068274 -3.9955754 1.1446877 0
-1.1915607 -3.7509768 1.0185202 0
4.4938998 -3.6476686 1.1534479 0
-1.8131847 -3.4372592 1.0673645 0
-0.62807167 -3.4853055 1.0715151 0
0.016521573 -3.4403732 1.1934749 0
1.2954631 -3.5344431 1.0446713 0
3.2886047 -3.5115516 1.0597486 0
4.5737538 -3.4531007 1.1342101 0
-1.2282867 -3.2117918 1.0254171 0
-1.1886674 -3.3092344 1.0000713 0
2.5054774 -3.2629087 1.1050621 0
-2.4559572 -3.1566842 1.1757041 0
-1.2539369 -3.114392 1.0250721 0
-0.66632742 -3.1378272 1.030569 0
-0.40550792 -3.1440656 1.0799727 0
-0.31864399 -3.0817039 1.0562277 0
-0.055228531 -3.0711393 1.0284274 0
1.1843714 -3.1035018 1.0449824 0
1.3536664 -3.0309303 1.0453405 0
2.4841981 -3.0502708 1.0566612 0
2.8783305 -3.1000464 1.0557389 0
3.010746 -3.012517 1.0612776 0
4.7404141 -3.0623102 1.1524928 0
4.922863 -3.0840125 1.1203279 0
5.1153908 -3.0981441 1.1440843 0
5.3300314 -3.0314755 1.1474552 0
7.6296463 -3.027739 1.1995349 0
-1.7169876 -2.8940268 1.0921526 0
-1.2522742 -2.8504591 1.1527706 0
-1.1607947 -2.9225481 1.0165181 0
-0.84075654 -2.9675276 1.0286064 0
-0.58839393 -2.8110328 1.0160966 0
-0.23361039 -2.9782145 1.0549314 0
-0.14495134 -2.9778447 1.0169594 0
0.053733379 -2.9719288 1.0813715 0
0.29379261 -2.8990309 1.1886178 0
2.1853485 -2.8176064 1.1617498 0
2.5525398 -2.9564414 1.0490934 0
2.6843567 -2.9539802 1.0885832 0
2.9035454 -2.913475 1.1046469 0
3.0941494 -2.9608114 1.0579175 0
4.3696179 -2.9506347 1.0908151 0
4.5110431 -2.8795311 1.0782713 0
4.6398759 -2.8702478 1.16107 0
4.8346057 -2.8569341 1.0284998 0
5.1100302 -2.9607108 1.1443856 0
5.2990484 -2.9272757 1.1264558 0
5.5918951 -2.93975 1.0100398 0
6.1381197 -2.9557447 1.1536827 0
6.3171487 -2.9282978 1.1010607 0
7.6604795 -2.9565313 1.0478621 0
-1.2388538 -2.7600064 1.1621906 0
-0.58850884 -2.6774917 1.0362176 0
1.300951 -2.6437953 1.0876954 0
2.9137881 -2.7220335 1.0708264 0
4.5035009 -2.7198188 1.0867319 0
4.6297941 -2.7243605 1.1248398 0
4.8123379 -2.7175519 1.046909 0
5.0118122 -2.7504406 1.013424 0
5.2079606 -2.6096082 1.0046837 0
6.1020503 -2.6889019 1.1047374 0
6.6005588 -2.617456 1.1614243 0
9.2704859 -2.6901059 1.1074135 0
-1.9553168 -2.4130254 1.1438321 0
